ply
    format ascii 1.0
    element vertex 44165
    property float x
    property float y
    property float z
    property uchar red
    property uchar green
    property uchar blue
    end_header
0.077219 0.023704 0.181563 27 22 70
0.077619 0.023690 0.181453 27 21 77
0.078005 0.023671 0.181313 29 24 86
0.078397 0.023655 0.181188 24 22 86
0.078830 0.023651 0.181157 22 21 80
0.079300 0.023658 0.181213 13 13 68
0.079830 0.023683 0.181406 12 8 49
0.080386 0.023715 0.181654 12 8 41
0.080920 0.023741 0.181850 11 8 41
0.081419 0.023756 0.181965 9 6 35
0.081843 0.023749 0.181912 14 12 44
0.082225 0.023730 0.181766 19 12 52
0.082587 0.023705 0.181580 15 10 50
0.082929 0.023675 0.181351 13 10 47
0.083268 0.023645 0.181118 11 10 44
0.083622 0.023619 0.180920 12 10 49
0.083992 0.023597 0.180758 11 10 51
0.084371 0.023579 0.180619 10 8 49
0.084743 0.023559 0.180463 10 8 50
0.085100 0.023535 0.180279 11 9 56
0.085453 0.023510 0.180089 12 10 56
0.085812 0.023487 0.179913 15 14 58
0.086176 0.023465 0.179748 16 15 59
0.086538 0.023443 0.179582 17 16 62
0.086891 0.023419 0.179399 18 16 65
0.087234 0.023393 0.179198 18 16 65
0.087583 0.023368 0.179009 18 16 66
0.087918 0.023340 0.178796 19 17 66
0.088243 0.023310 0.178563 18 17 64
0.088563 0.023278 0.178324 18 17 60
0.088868 0.023243 0.178054 19 18 60
0.089175 0.023209 0.177794 21 20 61
0.089473 0.023173 0.177517 22 20 57
0.089768 0.023136 0.177237 22 20 55
0.090058 0.023099 0.176951 22 16 52
-0.059087 0.027530 0.206708 3 0 9
-0.058306 0.027402 0.205749 1 0 9
-0.057655 0.027333 0.205232 1 0 9
-0.057079 0.027299 0.204979 1 0 9
-0.056553 0.027289 0.204902 1 0 7
-0.056054 0.027291 0.204919 1 0 7
-0.055570 0.027301 0.204998 0 0 6
-0.055096 0.027316 0.205110 0 0 6
-0.054643 0.027342 0.205305 0 0 6
-0.054198 0.027373 0.205535 0 0 7
-0.053763 0.027408 0.205805 1 0 9
-0.053323 0.027442 0.206062 1 0 9
-0.052898 0.027485 0.206384 1 0 9
-0.052482 0.027533 0.206743 1 0 9
-0.052104 0.027603 0.207267 1 0 9
-0.051743 0.027682 0.207865 1 0 9
-0.051389 0.027767 0.208504 1 0 11
-0.051068 0.027872 0.209294 0 0 13
-0.050755 0.027983 0.210130 0 0 17
-0.025261 0.043879 0.329588 39 89 202
-0.024457 0.043891 0.329679 38 88 201
-0.023650 0.043899 0.329742 36 89 200
-0.022842 0.043905 0.329786 36 89 200
-0.022034 0.043912 0.329840 36 89 200
-0.021225 0.043917 0.329883 37 89 197
-0.020416 0.043924 0.329932 37 88 196
-0.019606 0.043928 0.329964 37 88 196
-0.018793 0.043926 0.329955 37 88 197
-0.017980 0.043923 0.329930 37 88 198
-0.017166 0.043917 0.329889 37 89 199
-0.016351 0.043908 0.329824 37 89 199
-0.015536 0.043900 0.329760 38 89 198
-0.014721 0.043888 0.329673 38 89 199
-0.013905 0.043874 0.329573 38 89 199
-0.013091 0.043864 0.329500 38 89 199
-0.012279 0.043859 0.329460 38 89 199
-0.011467 0.043856 0.329439 38 89 199
-0.010656 0.043853 0.329418 40 87 199
-0.009844 0.043848 0.329384 40 87 199
-0.009033 0.043844 0.329351 40 87 199
-0.008222 0.043840 0.329326 40 87 199
-0.007411 0.043838 0.329312 40 87 199
-0.006601 0.043837 0.329309 40 87 199
-0.005790 0.043835 0.329290 40 87 200
-0.004979 0.043832 0.329269 39 87 201
-0.004169 0.043829 0.329252 39 87 201
-0.003358 0.043826 0.329230 39 87 200
-0.002548 0.043823 0.329210 38 89 197
-0.001738 0.043821 0.329190 38 89 197
-0.000927 0.043816 0.329159 38 89 197
-0.000117 0.043814 0.329140 37 90 199
0.000693 0.043813 0.329136 38 89 199
0.001503 0.043813 0.329137 38 88 200
0.002313 0.043813 0.329141 38 89 200
0.003122 0.043812 0.329135 38 89 199
0.003932 0.043811 0.329131 39 90 200
0.004742 0.043812 0.329139 40 90 200
0.005553 0.043814 0.329155 40 90 200
0.006363 0.043818 0.329183 40 89 200
0.007174 0.043821 0.329207 40 89 200
0.007984 0.043824 0.329232 40 89 200
0.008796 0.043829 0.329273 40 89 200
0.009607 0.043834 0.329315 40 89 200
0.010419 0.043840 0.329356 40 89 200
0.011231 0.043846 0.329405 41 90 201
0.012043 0.043851 0.329442 40 89 201
0.012855 0.043857 0.329488 39 89 203
0.013669 0.043867 0.329565 38 89 202
0.014482 0.043870 0.329593 37 89 200
0.015294 0.043875 0.329631 38 89 199
0.016107 0.043878 0.329650 38 89 199
0.016919 0.043881 0.329674 38 89 199
0.017732 0.043886 0.329716 38 90 200
0.018547 0.043893 0.329774 38 90 200
0.019363 0.043904 0.329850 38 90 200
0.020178 0.043910 0.329904 38 90 200
0.020994 0.043920 0.329973 38 90 200
0.021812 0.043932 0.330065 38 90 200
0.022631 0.043944 0.330158 38 90 200
0.023451 0.043957 0.330261 38 90 200
0.024270 0.043970 0.330355 38 90 200
0.025087 0.043977 0.330413 38 90 200
0.025905 0.043985 0.330474 39 90 200
0.026725 0.043995 0.330551 39 89 200
0.027544 0.044005 0.330624 38 87 198
0.028362 0.044011 0.330675 39 88 199
0.029176 0.044012 0.330680 38 88 198
0.046762 0.027233 0.204664 0 0 13
0.046991 0.027074 0.203474 0 0 13
0.047300 0.026965 0.202654 0 0 13
0.047634 0.026872 0.201954 0 0 13
0.047954 0.026773 0.201212 0 0 13
0.048268 0.026673 0.200460 0 0 13
0.048568 0.026567 0.199667 0 0 13
0.049092 0.026063 0.195876 7 2 16
0.049100 0.025814 0.194005 13 6 20
0.049076 0.025552 0.192043 15 6 18
0.049041 0.025291 0.190078 19 6 19
0.049083 0.025073 0.188442 17 6 20
0.049236 0.024916 0.187261 11 7 20
0.049440 0.024787 0.186292 7 6 21
0.049701 0.024688 0.185555 6 5 24
0.049986 0.024604 0.184920 7 5 26
0.050292 0.024532 0.184377 9 7 25
0.050615 0.024468 0.183901 12 8 23
0.050956 0.024415 0.183499 14 9 25
0.051319 0.024372 0.183182 13 8 24
0.051695 0.024337 0.182919 14 7 21
0.052073 0.024304 0.182667 15 8 22
0.052471 0.024280 0.182488 17 9 23
0.052872 0.024258 0.182323 15 11 22
0.053294 0.024245 0.182232 12 8 20
0.053726 0.024238 0.182175 10 6 22
0.054170 0.024236 0.182162 9 4 21
0.054613 0.024233 0.182145 8 3 21
0.055065 0.024235 0.182158 7 1 22
0.055527 0.024241 0.182203 10 5 21
0.056006 0.024254 0.182302 9 6 20
0.056506 0.024276 0.182469 6 3 18
0.057035 0.024310 0.182725 3 0 16
0.057591 0.024355 0.183063 4 1 18
0.058164 0.024406 0.183450 4 1 18
0.058765 0.024468 0.183918 4 1 19
0.059357 0.024526 0.184353 6 2 22
0.059943 0.024580 0.184760 9 5 27
0.060514 0.024628 0.185118 5 1 21
0.061060 0.024664 0.185392 1 0 21
0.061586 0.024692 0.185602 1 0 24
0.062089 0.024710 0.185741 6 4 28
0.062561 0.024716 0.185786 8 7 30
0.063015 0.024715 0.185778 6 8 30
0.063467 0.024713 0.185761 5 5 29
0.063917 0.024710 0.185741 3 1 24
0.064363 0.024706 0.185710 2 0 15
0.064812 0.024703 0.185688 1 0 8
0.065255 0.024697 0.185648 1 0 10
0.065699 0.024692 0.185611 7 4 19
0.066137 0.024685 0.185559 10 7 22
0.066594 0.024685 0.185560 8 5 20
0.067045 0.024683 0.185546 4 2 19
0.067497 0.024682 0.185534 2 1 18
0.067953 0.024681 0.185533 2 1 18
0.068404 0.024679 0.185519 0 0 16
0.068863 0.024680 0.185524 0 0 14
0.069307 0.024676 0.185492 0 0 14
0.069740 0.024667 0.185430 0 0 19
0.070151 0.024651 0.185311 6 7 33
0.070552 0.024632 0.185167 8 7 38
0.070940 0.024608 0.184989 5 4 39
0.071309 0.024579 0.184767 5 3 40
0.071669 0.024546 0.184524 5 3 39
0.072005 0.024506 0.184221 10 8 47
0.072355 0.024471 0.183960 19 14 54
0.072712 0.024439 0.183718 26 21 61
0.073092 0.024414 0.183537 29 22 76
0.073466 0.024389 0.183344 29 23 82
0.073835 0.024362 0.183141 28 23 81
0.074203 0.024334 0.182936 24 21 81
0.074567 0.024306 0.182727 22 16 71
0.074946 0.024283 0.182553 21 14 65
0.075326 0.024261 0.182387 21 15 64
0.075712 0.024241 0.182236 21 15 65
0.076086 0.024217 0.182058 23 16 66
0.076474 0.024198 0.181916 28 22 67
0.076864 0.024180 0.181781 29 23 70
0.077250 0.024160 0.181636 28 22 70
0.077654 0.024147 0.181535 27 21 77
0.078040 0.024128 0.181395 28 24 86
0.078433 0.024112 0.181273 23 24 86
0.078862 0.024107 0.181234 21 22 80
0.079330 0.024113 0.181283 12 14 68
0.079855 0.024137 0.181464 10 9 47
0.080407 0.024168 0.181701 12 9 38
0.080936 0.024193 0.181886 12 8 39
0.081432 0.024207 0.181994 8 5 36
0.081858 0.024201 0.181946 15 13 47
0.082244 0.024182 0.181809 21 15 55
0.082611 0.024159 0.181633 15 10 49
0.082954 0.024129 0.181407 14 10 46
0.083298 0.024099 0.181184 13 9 44
0.083657 0.024074 0.180997 13 9 47
0.084034 0.024054 0.180849 12 10 48
0.084417 0.024036 0.180717 10 8 46
0.084786 0.024015 0.180556 10 8 47
0.085145 0.023991 0.180377 11 10 54
0.085498 0.023965 0.180186 11 10 56
0.085859 0.023942 0.180013 15 14 59
0.086223 0.023920 0.179847 17 16 61
0.086584 0.023898 0.179679 17 16 65
0.086935 0.023873 0.179490 18 16 68
0.087278 0.023846 0.179289 20 18 69
0.087623 0.023819 0.179092 21 19 69
0.087950 0.023789 0.178862 23 21 70
0.088268 0.023756 0.178614 24 23 70
0.088580 0.023721 0.178357 24 23 70
-0.059092 0.028041 0.206727 3 1 12
-0.058287 0.027899 0.205684 1 0 9
-0.057624 0.027823 0.205125 1 0 9
-0.057034 0.027782 0.204820 1 0 9
-0.056502 0.027768 0.204719 1 0 7
-0.055999 0.027768 0.204723 1 0 7
-0.055517 0.027779 0.204801 0 0 6
-0.055044 0.027795 0.204918 0 0 6
-0.054590 0.027820 0.205108 0 0 6
-0.054142 0.027849 0.205321 0 0 7
-0.053703 0.027884 0.205577 0 0 8
-0.053259 0.027916 0.205815 0 0 8
-0.052836 0.027960 0.206141 0 0 8
-0.052423 0.028011 0.206516 0 0 8
-0.052054 0.028085 0.207067 0 0 8
-0.051698 0.028169 0.207687 0 0 8
-0.051339 0.028253 0.208301 0 0 10
-0.050964 0.028329 0.208868 0 0 12
-0.050618 0.028423 0.209562 0 0 16
-0.026661 0.044321 0.326866 38 86 200
-0.025867 0.044338 0.326990 40 86 201
-0.025070 0.044352 0.327100 40 87 201
-0.024273 0.044366 0.327202 39 86 201
-0.023471 0.044373 0.327254 37 88 198
-0.022668 0.044377 0.327287 37 88 197
-0.021866 0.044383 0.327332 37 88 197
-0.021063 0.044389 0.327375 37 87 196
-0.020260 0.044394 0.327416 37 86 195
-0.019456 0.044398 0.327443 37 86 195
-0.018649 0.044395 0.327424 37 87 196
-0.017841 0.044390 0.327390 37 88 198
-0.017033 0.044383 0.327341 36 87 196
-0.016225 0.044376 0.327288 36 87 196
-0.015416 0.044367 0.327223 37 86 195
-0.014608 0.044356 0.327146 36 87 196
-0.013799 0.044345 0.327065 36 87 197
-0.012992 0.044336 0.326996 37 88 198
-0.012185 0.044329 0.326946 37 88 198
-0.011379 0.044324 0.326915 37 88 198
-0.010574 0.044321 0.326891 39 86 198
-0.009769 0.044316 0.326858 40 86 198
-0.008963 0.044311 0.326825 40 86 198
-0.008159 0.044308 0.326804 40 86 198
-0.007354 0.044306 0.326787 40 86 198
-0.006550 0.044305 0.326782 40 86 198
-0.005745 0.044303 0.326767 39 86 199
-0.004941 0.044300 0.326746 38 86 200
-0.004137 0.044298 0.326737 38 86 200
-0.003332 0.044296 0.326724 38 86 199
-0.002528 0.044294 0.326709 37 88 196
-0.001724 0.044292 0.326694 37 88 196
-0.000920 0.044287 0.326662 37 88 196
-0.000116 0.044284 0.326640 36 90 199
0.000687 0.044283 0.326635 38 89 199
0.001491 0.044283 0.326635 38 88 200
0.002295 0.044283 0.326637 37 88 199
0.003099 0.044282 0.326629 37 88 198
0.003903 0.044281 0.326625 37 88 198
0.004706 0.044282 0.326632 38 87 198
0.005510 0.044284 0.326649 38 87 198
0.006315 0.044288 0.326680 40 88 199
0.007119 0.044292 0.326708 39 88 199
0.007924 0.044295 0.326732 40 89 200
0.008729 0.044301 0.326780 38 87 198
0.009535 0.044307 0.326826 38 87 198
0.010340 0.044313 0.326872 40 89 200
0.011146 0.044319 0.326917 39 88 199
0.011952 0.044325 0.326965 39 88 199
0.012759 0.044331 0.327004 38 88 201
0.013566 0.044340 0.327073 38 88 201
0.014372 0.044344 0.327102 38 89 200
0.015178 0.044346 0.327121 38 89 199
0.015984 0.044347 0.327131 38 89 199
0.016789 0.044349 0.327144 38 89 199
0.017596 0.044353 0.327179 38 89 199
0.018404 0.044359 0.327226 38 89 199
0.019213 0.044369 0.327296 38 89 199
0.020022 0.044376 0.327349 38 89 199
0.020832 0.044385 0.327417 38 89 199
0.021644 0.044398 0.327520 38 89 199
0.022456 0.044411 0.327612 38 89 199
0.023270 0.044425 0.327716 38 89 199
0.024083 0.044437 0.327805 38 89 199
0.024894 0.044445 0.327865 38 89 199
0.025705 0.044452 0.327922 37 88 198
0.026518 0.044462 0.327997 38 88 198
0.027330 0.044470 0.328056 38 87 198
0.028140 0.044474 0.328089 38 86 197
0.028949 0.044475 0.328099 37 86 197
0.029755 0.044474 0.328092 37 87 197
0.030562 0.044473 0.328086 37 87 198
0.031368 0.044470 0.328068 37 88 198
0.047036 0.027601 0.203669 0 0 13
0.047310 0.027469 0.202696 0 0 13
0.047641 0.027373 0.201984 0 0 13
0.047962 0.027273 0.201247 0 0 13
0.048272 0.027169 0.200479 0 0 14
0.048983 0.026486 0.195443 5 2 18
0.048975 0.026224 0.193510 10 5 21
0.048947 0.025956 0.191538 9 2 16
0.048945 0.025708 0.189707 11 3 16
0.049020 0.025504 0.188200 11 4 18
0.049196 0.025356 0.187108 8 4 20
0.049413 0.025232 0.186193 5 3 19
0.049680 0.025135 0.185478 5 4 22
0.049967 0.025050 0.184854 6 4 24
0.050276 0.024977 0.184318 8 7 24
0.050597 0.024912 0.183835 11 6 22
0.050938 0.024858 0.183437 12 6 22
0.051304 0.024816 0.183130 12 7 23
0.051683 0.024781 0.182876 17 10 26
0.052065 0.024749 0.182639 17 9 26
0.052467 0.024727 0.182476 15 6 23
0.052874 0.024707 0.182332 13 7 22
0.053302 0.024697 0.182260 11 7 20
0.053740 0.024692 0.182224 10 6 19
0.054192 0.024694 0.182236 9 4 19
0.054642 0.024694 0.182241 6 1 20
0.055101 0.024700 0.182279 9 3 25
0.055570 0.024708 0.182345 13 8 23
0.056059 0.024726 0.182475 9 7 16
0.056569 0.024752 0.182672 5 3 13
0.057110 0.024792 0.182968 3 1 13
0.057682 0.024845 0.183353 2 0 14
0.058266 0.024901 0.183773 4 1 18
0.058876 0.024968 0.184268 9 5 24
0.059469 0.025027 0.184703 10 6 26
0.060051 0.025080 0.185096 9 5 26
0.060615 0.025125 0.185428 3 0 19
0.061153 0.025159 0.185675 1 0 20
0.061669 0.025182 0.185852 4 2 26
0.062159 0.025196 0.185951 9 7 31
0.062622 0.025198 0.185968 9 8 32
0.063066 0.025193 0.185929 7 8 31
0.063514 0.025189 0.185901 5 6 29
0.063961 0.025184 0.185870 5 3 25
0.064403 0.025178 0.185828 3 0 16
0.064849 0.025174 0.185795 2 0 10
0.065288 0.025167 0.185743 4 1 13
0.065726 0.025160 0.185690 8 5 21
0.066160 0.025151 0.185625 9 6 21
0.066616 0.025150 0.185624 7 4 19
0.067066 0.025148 0.185606 3 2 18
0.067521 0.025147 0.185600 1 1 18
0.067978 0.025147 0.185603 1 0 17
0.068431 0.025146 0.185592 0 0 17
0.068888 0.025146 0.185593 0 0 19
0.069330 0.025140 0.185555 2 0 20
0.069762 0.025131 0.185489 4 4 25
0.070171 0.025114 0.185365 7 8 33
0.070575 0.025096 0.185228 6 5 36
0.070965 0.025072 0.185055 5 4 39
0.071335 0.025042 0.184834 6 4 41
0.071694 0.025009 0.184590 6 5 41
0.072026 0.024966 0.184275 10 8 48
0.072375 0.024930 0.184011 16 14 58
0.072735 0.024899 0.183778 24 22 66
0.073118 0.024875 0.183603 27 23 79
0.073491 0.024848 0.183408 27 23 84
0.073857 0.024819 0.183196 26 23 85
0.074220 0.024790 0.182980 26 23 87
0.074583 0.024761 0.182767 24 20 79
0.074962 0.024737 0.182593 24 20 72
0.075344 0.024715 0.182430 22 19 70
0.075731 0.024695 0.182281 21 17 69
0.076106 0.024671 0.182106 22 20 67
0.076499 0.024653 0.181976 26 23 67
0.076894 0.024636 0.181850 28 25 70
0.077282 0.024618 0.181713 26 23 70
0.077689 0.024605 0.181618 26 22 77
0.078075 0.024585 0.181477 27 25 86
0.078470 0.024569 0.181358 21 24 86
0.078896 0.024563 0.181312 17 20 78
0.079360 0.024568 0.181353 9 13 67
0.079879 0.024591 0.181518 9 9 49
0.080425 0.024621 0.181742 10 10 41
0.080948 0.024644 0.181914 11 10 43
0.081443 0.024658 0.182020 9 9 42
0.081870 0.024652 0.181975 14 16 50
0.082262 0.024635 0.181850 16 15 51
0.082631 0.024612 0.181680 13 11 46
0.082978 0.024582 0.181460 14 9 48
0.083327 0.024553 0.181248 12 8 48
0.083690 0.024529 0.181070 12 9 46
0.084072 0.024510 0.180933 10 10 47
0.084458 0.024493 0.180805 9 9 46
0.084826 0.024471 0.180643 10 10 47
0.085187 0.024447 0.180466 12 11 52
0.085541 0.024421 0.180275 12 11 56
0.085902 0.024397 0.180104 16 14 62
0.086266 0.024375 0.179938 18 16 66
0.086623 0.024351 0.179762 20 17 70
0.086968 0.024323 0.179560 21 18 74
0.087311 0.024296 0.179358 21 18 73
0.087648 0.024267 0.179145 22 19 72
-0.058247 0.028386 0.205542 1 0 9
-0.057584 0.028308 0.204983 1 0 9
-0.056990 0.028264 0.204663 1 0 8
-0.056455 0.028248 0.204550 1 0 8
-0.055951 0.028248 0.204548 1 0 7
-0.055466 0.028257 0.204617 0 0 6
-0.054993 0.028273 0.204730 0 0 6
-0.054536 0.028297 0.204904 0 0 6
-0.054081 0.028323 0.205093 0 0 7
-0.053639 0.028356 0.205333 0 0 8
-0.053191 0.028387 0.205556 0 0 8
-0.052774 0.028434 0.205900 0 0 8
-0.052369 0.028489 0.206302 0 0 8
-0.052006 0.028569 0.206878 0 0 8
-0.051654 0.028656 0.207510 0 0 8
-0.051288 0.028737 0.208097 0 0 10
-0.050875 0.028793 0.208504 0 0 11
-0.050504 0.028874 0.209093 0 0 12
-0.050414 0.029120 0.210871 2 10 42
-0.028040 0.044759 0.324211 38 85 198
-0.027251 0.044774 0.324319 39 84 198
-0.026461 0.044787 0.324417 39 84 198
-0.025670 0.044800 0.324512 40 84 199
-0.024880 0.044814 0.324617 41 85 199
-0.024088 0.044827 0.324710 41 85 199
-0.023293 0.044835 0.324766 37 84 194
-0.022496 0.044839 0.324799 36 84 193
-0.021698 0.044843 0.324829 36 84 193
-0.020902 0.044848 0.324868 36 85 194
-0.020104 0.044853 0.324902 37 86 195
-0.019306 0.044856 0.324925 37 86 195
-0.018505 0.044852 0.324897 37 86 195
-0.017703 0.044846 0.324856 36 87 195
-0.016901 0.044839 0.324810 36 86 194
-0.016099 0.044831 0.324752 36 86 194
-0.015297 0.044824 0.324700 37 86 195
-0.014495 0.044814 0.324632 37 86 195
-0.013693 0.044802 0.324543 37 86 196
-0.012891 0.044791 0.324469 37 87 197
-0.012091 0.044785 0.324425 37 87 198
-0.011291 0.044781 0.324396 36 88 198
-0.010492 0.044778 0.324375 37 87 198
-0.009693 0.044773 0.324344 37 87 198
-0.008894 0.044768 0.324311 37 87 198
-0.008096 0.044765 0.324287 37 87 198
-0.007297 0.044762 0.324267 37 87 198
-0.006499 0.044761 0.324262 37 87 198
-0.005701 0.044759 0.324246 37 87 198
-0.004903 0.044756 0.324226 36 87 198
-0.004105 0.044754 0.324217 36 87 198
-0.003307 0.044753 0.324206 35 86 196
-0.002509 0.044750 0.324190 36 86 194
-0.001711 0.044748 0.324174 36 86 194
-0.000913 0.044744 0.324145 36 86 195
-0.000115 0.044741 0.324127 37 88 198
0.000682 0.044741 0.324130 37 88 198
0.001480 0.044742 0.324136 37 87 199
0.002278 0.044742 0.324142 37 87 198
0.003075 0.044742 0.324139 37 87 197
0.003873 0.044742 0.324139 38 88 198
0.004671 0.044743 0.324150 38 87 198
0.005469 0.044746 0.324169 38 87 198
0.006267 0.044750 0.324201 39 88 199
0.007065 0.044754 0.324230 39 88 199
0.007864 0.044757 0.324258 38 87 198
0.008663 0.044763 0.324302 38 87 198
0.009463 0.044769 0.324350 38 87 198
0.010262 0.044776 0.324395 39 88 199
0.011062 0.044782 0.324440 39 88 199
0.011862 0.044787 0.324483 39 88 199
0.012662 0.044792 0.324520 38 88 199
0.013463 0.044800 0.324580 38 88 199
0.014264 0.044806 0.324626 38 88 199
0.015063 0.044808 0.324637 38 89 199
0.015862 0.044809 0.324647 38 89 199
0.016661 0.044810 0.324652 38 89 199
0.017462 0.044813 0.324681 38 89 199
0.018263 0.044818 0.324718 38 89 199
0.019066 0.044827 0.324783 38 89 199
0.019868 0.044834 0.324835 38 89 199
0.020672 0.044843 0.324901 38 89 199
0.021477 0.044855 0.324989 38 89 199
0.022283 0.044867 0.325077 38 89 199
0.023089 0.044879 0.325170 38 89 199
0.023896 0.044892 0.325260 38 89 199
0.024700 0.044899 0.325312 38 89 199
0.025504 0.044905 0.325357 37 88 198
0.026311 0.044915 0.325436 38 87 198
0.027117 0.044924 0.325500 38 87 198
0.027923 0.044931 0.325550 37 86 197
0.028725 0.044933 0.325567 36 85 196
0.029525 0.044931 0.325557 36 85 196
0.030326 0.044930 0.325550 37 88 198
0.031125 0.044927 0.325531 37 88 198
0.031927 0.044928 0.325539 37 87 198
0.032725 0.044924 0.325512 37 87 198
0.047329 0.027979 0.202777 0 0 14
0.047642 0.027871 0.201991 0 0 13
0.047961 0.027767 0.201243 0 0 13
0.048875 0.026907 0.195013 5 3 19
0.048859 0.026637 0.193053 10 5 21
0.048829 0.026364 0.191079 8 2 17
0.048863 0.026131 0.189387 9 5 18
0.048964 0.025937 0.187988 9 5 19
0.049151 0.025792 0.186937 5 2 18
0.049379 0.025672 0.186064 3 0 17
0.049647 0.025574 0.185356 3 2 19
0.049938 0.025489 0.184744 7 4 24
0.050248 0.025416 0.184216 8 6 23
0.050570 0.025351 0.183740 11 6 23
0.050917 0.025298 0.183359 11 7 24
0.051287 0.025258 0.183071 12 7 24
0.051669 0.025225 0.182831 17 9 28
0.052058 0.025195 0.182615 16 8 27
0.052468 0.025176 0.182478 10 1 21
0.052883 0.025160 0.182361 9 2 20
0.053320 0.025154 0.182323 6 2 17
0.053766 0.025153 0.182315 7 3 15
0.054225 0.025158 0.182349 7 2 17
0.054681 0.025161 0.182374 5 0 18
0.055147 0.025169 0.182430 10 5 23
0.055621 0.025180 0.182514 13 9 23
0.056117 0.025201 0.182665 8 6 17
0.056636 0.025232 0.182892 4 1 12
0.057191 0.025278 0.183226 1 0 12
0.057776 0.025337 0.183653 2 0 15
0.058372 0.025400 0.184109 5 2 19
0.058987 0.025470 0.184615 11 8 26
0.059580 0.025529 0.185047 13 9 28
0.060160 0.025582 0.185432 9 5 27
0.060717 0.025624 0.185741 3 0 22
0.061249 0.025656 0.185968 1 0 22
0.061752 0.025675 0.186105 3 1 26
0.062232 0.025683 0.186171 8 6 30
0.062687 0.025682 0.186161 9 7 32
0.063122 0.025673 0.186095 11 10 35
0.063566 0.025667 0.186053 12 11 36
0.064008 0.025660 0.186007 6 4 28
0.064445 0.025652 0.185950 2 0 16
0.064888 0.025646 0.185907 2 0 12
0.065325 0.025638 0.185849 4 2 15
0.065760 0.025629 0.185785 9 6 21
0.066192 0.025620 0.185717 7 4 20
0.066649 0.025620 0.185715 6 4 19
0.067099 0.025617 0.185696 3 2 18
0.067554 0.025616 0.185692 1 1 18
0.068011 0.025616 0.185694 1 0 17
0.068463 0.025614 0.185679 0 0 17
0.068917 0.025613 0.185673 0 0 20
0.069356 0.025606 0.185625 5 2 23
0.069784 0.025596 0.185549 7 6 28
0.070191 0.025578 0.185418 4 5 32
0.070594 0.025558 0.185279 4 4 36
0.070985 0.025535 0.185109 0 0 34
0.071357 0.025505 0.184893 4 4 40
0.071717 0.025471 0.184649 7 6 45
0.072049 0.025428 0.184335 10 8 50
0.072398 0.025391 0.184070 17 18 64
0.072762 0.025360 0.183846 23 24 72
0.073146 0.025336 0.183675 25 24 83
0.073518 0.025309 0.183474 24 22 89
0.073882 0.025279 0.183259 24 23 88
0.074243 0.025248 0.183038 23 22 90
0.074607 0.025219 0.182826 24 21 82
0.074986 0.025195 0.182654 24 21 74
0.075369 0.025173 0.182493 23 21 72
0.075757 0.025152 0.182345 23 21 71
0.076132 0.025128 0.182170 23 22 70
0.076527 0.025110 0.182044 25 24 68
0.076921 0.025093 0.181917 27 25 70
0.077313 0.025075 0.181786 26 24 70
0.077720 0.025062 0.181692 23 24 77
0.078109 0.025043 0.181558 25 26 86
0.078506 0.025027 0.181441 20 23 85
0.078931 0.025020 0.181394 13 17 75
0.079392 0.025025 0.181427 6 11 64
0.079903 0.025045 0.181574 9 9 53
0.080443 0.025074 0.181785 12 11 48
0.080961 0.025096 0.181944 12 11 47
0.081454 0.025109 0.182045 13 12 47
0.081882 0.025103 0.182002 16 15 51
0.082277 0.025087 0.181884 15 13 48
0.082649 0.025064 0.181718 12 11 44
0.082999 0.025035 0.181506 12 10 47
0.083353 0.025007 0.181305 12 9 48
0.083717 0.024982 0.181129 13 10 45
0.084105 0.024965 0.181004 13 9 45
0.084491 0.024948 0.180878 12 9 46
0.084858 0.024924 0.180711 13 11 48
0.085218 0.024900 0.180533 12 12 52
0.085570 0.024873 0.180337 12 10 56
0.085930 0.024848 0.180162 18 16 68
0.086289 0.024824 0.179988 22 20 73
0.086646 0.024800 0.179809 23 20 77
0.086989 0.024771 0.179603 25 22 80
-0.058961 0.028994 0.206274 0 0 14
-0.058191 0.028864 0.205346 1 0 11
-0.057539 0.028791 0.204825 1 0 10
-0.056951 0.028748 0.204524 1 0 7
-0.056417 0.028732 0.204412 1 0 9
-0.055913 0.028732 0.204410 1 0 8
-0.055425 0.028739 0.204464 0 0 6
-0.054949 0.028754 0.204567 0 0 6
-0.054485 0.028774 0.204716 0 0 6
-0.054022 0.028796 0.204870 0 0 7
-0.053573 0.028826 0.205083 0 0 8
-0.053125 0.028856 0.205300 0 0 8
-0.052714 0.028908 0.205668 0 0 8
-0.052318 0.028969 0.206104 0 0 8
-0.051965 0.029055 0.206719 0 0 8
-0.051612 0.029143 0.207343 0 0 8
-0.051237 0.029220 0.207891 0 0 9
-0.050810 0.029269 0.208241 0 0 12
-0.050412 0.029335 0.208714 0 0 16
-0.050360 0.029607 0.210647 0 2 31
-0.030188 0.045190 0.321595 37 86 197
-0.029404 0.045201 0.321679 37 86 197
-0.028620 0.045212 0.321758 37 86 197
-0.027835 0.045224 0.321842 36 87 197
-0.027049 0.045234 0.321915 38 85 197
-0.026264 0.045246 0.322002 39 85 197
-0.025478 0.045257 0.322081 39 85 197
-0.024693 0.045270 0.322177 40 86 198
-0.023905 0.045281 0.322253 40 86 198
-0.023118 0.045291 0.322328 37 83 194
-0.022326 0.045294 0.322352 37 83 193
-0.021534 0.045296 0.322369 37 83 193
-0.020743 0.045301 0.322401 36 84 193
-0.019950 0.045303 0.322422 35 84 193
-0.019158 0.045307 0.322446 35 84 193
-0.018363 0.045303 0.322418 35 84 193
-0.017568 0.045296 0.322375 34 85 193
-0.016772 0.045289 0.322324 36 86 195
-0.015976 0.045283 0.322283 37 86 195
-0.015180 0.045274 0.322220 37 86 195
-0.014384 0.045263 0.322145 37 86 195
-0.013588 0.045251 0.322059 37 86 195
-0.012792 0.045240 0.321985 37 86 195
-0.011998 0.045234 0.321944 37 86 197
-0.011205 0.045230 0.321913 37 86 197
-0.010412 0.045227 0.321890 37 87 197
-0.009619 0.045222 0.321857 37 87 197
-0.008826 0.045216 0.321819 37 87 197
-0.008033 0.045212 0.321793 37 87 197
-0.007241 0.045209 0.321772 37 87 197
-0.006449 0.045208 0.321767 37 87 197
-0.005657 0.045207 0.321760 37 87 196
-0.004865 0.045205 0.321750 36 87 195
-0.004073 0.045205 0.321746 35 86 194
-0.003281 0.045203 0.321737 33 84 192
-0.002489 0.045201 0.321722 35 83 193
-0.001698 0.045199 0.321709 35 84 193
-0.000906 0.045195 0.321683 35 84 193
-0.000114 0.045193 0.321666 36 87 197
0.000677 0.045194 0.321674 36 87 197
0.001469 0.045195 0.321685 36 87 198
0.002261 0.045196 0.321696 38 87 199
0.003052 0.045196 0.321698 38 87 198
0.003844 0.045196 0.321696 38 87 198
0.004636 0.045197 0.321705 38 87 198
0.005428 0.045199 0.321724 38 87 198
0.006220 0.045205 0.321763 38 87 198
0.007013 0.045210 0.321801 38 87 198
0.007805 0.045215 0.321836 38 87 198
0.008599 0.045221 0.321884 38 87 198
0.009392 0.045227 0.321929 38 87 198
0.010186 0.045233 0.321971 38 87 198
0.010979 0.045239 0.322018 38 87 198
0.011773 0.045244 0.322053 38 87 198
0.012567 0.045249 0.322092 38 87 198
0.013363 0.045259 0.322165 38 87 198
0.014157 0.045265 0.322206 38 87 198
0.014951 0.045268 0.322226 37 88 198
0.015745 0.045269 0.322237 37 88 198
0.016537 0.045268 0.322231 37 88 198
0.017331 0.045270 0.322245 38 89 199
0.018126 0.045275 0.322282 38 89 199
0.018922 0.045282 0.322334 38 89 199
0.019718 0.045289 0.322386 38 89 199
0.020515 0.045296 0.322437 38 89 199
0.021314 0.045308 0.322527 38 89 199
0.022114 0.045321 0.322615 38 89 199
0.022913 0.045332 0.322695 37 88 198
0.023714 0.045343 0.322778 37 88 198
0.024511 0.045350 0.322825 37 88 198
0.025308 0.045354 0.322854 37 88 198
0.026108 0.045364 0.322929 38 87 198
0.026909 0.045374 0.323004 38 87 198
0.027710 0.045383 0.323067 37 86 197
0.028506 0.045384 0.323078 34 83 194
0.029300 0.045383 0.323069 35 84 195
0.030093 0.045380 0.323051 38 87 198
0.030885 0.045376 0.323024 38 87 198
0.031680 0.045376 0.323023 37 86 197
0.032472 0.045372 0.322996 37 86 197
0.033264 0.045368 0.322968 36 87 197
0.034059 0.045367 0.322967 36 87 197
0.034852 0.045365 0.322951 37 88 198
0.047646 0.028370 0.202007 0 0 13
0.047957 0.028261 0.201230 0 0 14
0.048755 0.027054 0.192643 9 6 21
0.048737 0.026783 0.190718 6 3 18
0.048801 0.026563 0.189149 8 5 20
0.048919 0.026375 0.187814 8 5 20
0.049113 0.026232 0.186796 6 3 18
0.049346 0.026112 0.185942 4 1 17
0.049612 0.026012 0.185225 6 3 20
0.049904 0.025927 0.184621 10 7 24
0.050216 0.025853 0.184099 11 8 25
0.050542 0.025788 0.183636 10 7 24
0.050895 0.025738 0.183280 12 8 26
0.051273 0.025701 0.183020 11 8 25
0.051662 0.025671 0.182804 13 7 28
0.052058 0.025644 0.182615 12 5 27
0.052473 0.025628 0.182498 9 1 24
0.052894 0.025614 0.182402 8 3 22
0.053337 0.025611 0.182382 7 3 20
0.053790 0.025613 0.182396 6 1 16
0.054256 0.025621 0.182452 6 2 16
0.054717 0.025627 0.182494 6 1 20
0.055189 0.025637 0.182572 9 4 19
0.055670 0.025652 0.182675 10 6 19
0.056173 0.025676 0.182848 6 2 15
0.056704 0.025713 0.183112 3 0 12
0.057272 0.025766 0.183488 2 0 12
0.057871 0.025832 0.183958 3 0 17
0.058479 0.025900 0.184446 10 7 24
0.059099 0.025973 0.184965 13 9 28
0.059692 0.026033 0.185397 12 8 29
0.060270 0.026086 0.185771 9 4 29
0.060819 0.026125 0.186052 2 0 24
0.061342 0.026153 0.186251 1 0 23
0.061834 0.026167 0.186352 3 1 25
0.062303 0.026171 0.186384 8 6 30
0.062751 0.026167 0.186353 11 8 34
0.063180 0.026154 0.186266 12 9 36
0.063617 0.026146 0.186204 13 9 37
0.064055 0.026137 0.186144 7 5 30
0.064489 0.026127 0.186075 1 0 17
0.064929 0.026120 0.186025 0 0 13
0.065365 0.026111 0.185963 3 3 17
0.065797 0.026101 0.185891 7 7 21
0.066229 0.026091 0.185822 6 5 22
0.066684 0.026090 0.185814 4 3 20
0.067132 0.026087 0.185790 2 1 18
0.067588 0.026086 0.185785 2 1 18
0.068044 0.026085 0.185782 1 0 17
0.068494 0.026083 0.185765 1 0 17
0.068946 0.026081 0.185751 2 1 20
0.069384 0.026073 0.185699 5 3 22
0.069810 0.026062 0.185617 5 5 27
0.070214 0.026042 0.185480 4 6 35
0.070617 0.026023 0.185339 4 5 37
0.071007 0.025998 0.185167 0 0 33
0.071380 0.025968 0.184954 2 3 40
0.071742 0.025934 0.184713 7 6 47
0.072075 0.025891 0.184403 13 12 55
0.072426 0.025854 0.184142 22 21 68
0.072794 0.025824 0.183927 24 24 75
0.073179 0.025800 0.183759 25 25 85
0.073550 0.025771 0.183557 25 23 90
0.073915 0.025741 0.183342 23 21 90
0.074275 0.025709 0.183116 23 22 89
0.074638 0.025679 0.182902 23 21 81
0.075015 0.025654 0.182726 23 20 75
0.075398 0.025631 0.182563 23 21 73
0.075783 0.025610 0.182409 23 21 72
0.076160 0.025585 0.182237 23 21 72
0.076557 0.025568 0.182115 25 24 70
0.076953 0.025551 0.181993 27 26 69
0.077348 0.025533 0.181868 25 25 71
0.077755 0.025520 0.181773 23 25 78
0.078148 0.025502 0.181648 24 26 85
0.078549 0.025487 0.181543 19 24 85
0.078977 0.025481 0.181499 12 19 76
0.079435 0.025485 0.181527 4 11 64
0.079940 0.025503 0.181658 9 8 53
0.080472 0.025530 0.181850 14 12 46
0.080984 0.025550 0.181996 13 11 44
0.081474 0.025564 0.182092 14 11 45
0.081903 0.025558 0.182049 13 12 47
0.082300 0.025542 0.181935 14 9 46
0.082674 0.025519 0.181775 12 8 42
0.083028 0.025490 0.181570 12 11 45
0.083384 0.025463 0.181375 14 10 46
0.083747 0.025437 0.181195 16 10 43
0.084136 0.025420 0.181072 15 9 42
0.084519 0.025401 0.180939 14 9 43
0.084885 0.025377 0.180769 13 12 46
0.085243 0.025351 0.180587 13 13 49
0.085590 0.025322 0.180381 13 12 54
0.085942 0.025295 0.180190 20 18 65
0.086296 0.025269 0.180003 26 23 77
0.086651 0.025244 0.179822 26 23 80
-0.058832 0.029437 0.205822 1 0 13
-0.058121 0.029334 0.205102 1 0 11
-0.057492 0.029271 0.204660 1 0 10
-0.056918 0.029234 0.204405 1 0 7
-0.056386 0.029219 0.204301 1 0 9
-0.055880 0.029218 0.204293 1 0 8
-0.055389 0.029224 0.204335 0 0 6
-0.054910 0.029237 0.204425 0 0 6
-0.054440 0.029254 0.204549 0 0 6
-0.053970 0.029272 0.204673 0 0 7
-0.053516 0.029300 0.204867 0 0 8
-0.053066 0.029329 0.205076 0 0 8
-0.052661 0.029385 0.205464 0 0 8
-0.052274 0.029451 0.205930 0 0 8
-0.051927 0.029542 0.206566 0 0 8
-0.051574 0.029631 0.207191 0 0 8
-0.051199 0.029710 0.207741 0 0 9
-0.050805 0.029778 0.208219 0 0 13
-0.050363 0.029820 0.208513 0 0 22
-0.050251 0.030060 0.210192 0 0 22
-0.050132 0.030300 0.211872 9 24 83
-0.032317 0.045635 0.319174 37 86 197
-0.031536 0.045642 0.319221 37 86 197
-0.030755 0.045649 0.319272 37 86 198
-0.029974 0.045655 0.319319 37 85 199
-0.029194 0.045664 0.319383 37 85 199
-0.028413 0.045673 0.319441 37 85 199
-0.027630 0.045678 0.319478 37 86 199
-0.026848 0.045685 0.319528 38 84 199
-0.026067 0.045694 0.319597 39 84 199
-0.025286 0.045703 0.319661 38 85 199
-0.024507 0.045717 0.319760 38 86 200
-0.023726 0.045728 0.319836 38 86 200
-0.022942 0.045734 0.319883 35 84 196
-0.022156 0.045736 0.319897 35 84 195
-0.021369 0.045737 0.319906 35 84 195
-0.020583 0.045740 0.319927 35 84 194
-0.019797 0.045743 0.319950 35 84 193
-0.019011 0.045746 0.319968 35 84 193
-0.018222 0.045741 0.319938 35 84 193
-0.017432 0.045735 0.319894 35 85 194
-0.016643 0.045728 0.319852 37 86 195
-0.015853 0.045721 0.319801 37 86 195
-0.015063 0.045712 0.319738 37 86 195
-0.014273 0.045701 0.319667 37 86 195
-0.013483 0.045690 0.319585 37 86 195
-0.012694 0.045679 0.319513 37 86 195
-0.011906 0.045673 0.319474 37 86 195
-0.011119 0.045669 0.319448 37 86 195
-0.010332 0.045666 0.319427 37 86 195
-0.009545 0.045662 0.319396 37 86 195
-0.008758 0.045656 0.319359 37 86 195
-0.007971 0.045651 0.319326 37 86 195
-0.007185 0.045648 0.319308 37 86 195
-0.006399 0.045648 0.319306 37 86 195
-0.005614 0.045647 0.319304 37 86 195
-0.004828 0.045647 0.319300 36 87 195
-0.004042 0.045647 0.319300 34 86 193
-0.003256 0.045646 0.319294 34 84 193
-0.002470 0.045644 0.319282 35 84 193
-0.001685 0.045642 0.319271 36 85 194
-0.000899 0.045639 0.319249 37 86 195
-0.000113 0.045637 0.319236 36 87 197
0.000672 0.045638 0.319246 36 87 197
0.001458 0.045639 0.319259 36 87 198
0.002244 0.045641 0.319273 37 86 198
0.003029 0.045642 0.319281 39 85 197
0.003815 0.045642 0.319284 36 87 197
0.004601 0.045643 0.319293 37 86 197
0.005387 0.045646 0.319314 37 86 197
0.006174 0.045652 0.319352 38 87 198
0.006960 0.045657 0.319393 38 87 198
0.007747 0.045663 0.319431 37 86 197
0.008534 0.045669 0.319478 36 85 196
0.009322 0.045675 0.319522 36 85 196
0.010109 0.045680 0.319560 37 86 197
0.010897 0.045685 0.319596 37 86 197
0.011685 0.045691 0.319637 38 87 198
0.012473 0.045696 0.319674 37 86 197
0.013262 0.045706 0.319743 37 86 197
0.014051 0.045712 0.319791 37 86 197
0.014839 0.045714 0.319806 36 87 197
0.015626 0.045716 0.319818 36 87 197
0.016413 0.045715 0.319812 36 87 197
0.017201 0.045716 0.319822 37 88 198
0.017988 0.045718 0.319839 38 89 199
0.018778 0.045724 0.319877 38 89 199
0.019569 0.045732 0.319938 37 88 198
0.020359 0.045739 0.319987 37 88 198
0.021151 0.045749 0.320058 37 88 198
0.021944 0.045759 0.320131 37 88 198
0.022736 0.045768 0.320192 38 89 199
0.023529 0.045777 0.320260 38 89 199
0.024320 0.045784 0.320307 38 89 199
0.025111 0.045789 0.320342 39 89 200
0.025905 0.045799 0.320418 39 87 199
0.026700 0.045810 0.320495 40 86 198
0.027495 0.045820 0.320566 36 83 195
0.028287 0.045825 0.320599 34 81 193
0.029076 0.045824 0.320598 33 83 193
0.029863 0.045822 0.320580 37 86 197
0.030648 0.045817 0.320548 38 87 198
0.031436 0.045815 0.320540 37 86 197
0.032223 0.045812 0.320516 36 85 196
0.033010 0.045809 0.320499 35 86 196
0.033798 0.045809 0.320497 36 87 197
0.034585 0.045807 0.320486 36 87 197
0.035374 0.045807 0.320485 37 88 198
0.036163 0.045807 0.320492 38 89 199
0.047941 0.028746 0.201163 0 0 14
0.048664 0.027477 0.192286 9 5 20
0.048668 0.027214 0.190450 6 3 18
0.048753 0.027002 0.188964 8 5 20
0.048883 0.026818 0.187677 9 6 21
0.049085 0.026676 0.186688 9 6 21
0.049320 0.026556 0.185843 7 4 19
0.049586 0.026453 0.185128 8 5 23
0.049880 0.026368 0.184532 11 8 25
0.050198 0.026297 0.184034 11 8 25
0.050530 0.026234 0.183596 11 8 25
0.050890 0.026186 0.183264 11 8 25
0.051274 0.026152 0.183026 12 9 26
0.051668 0.026124 0.182825 12 8 28
0.052069 0.026099 0.182655 10 6 26
0.052490 0.026085 0.182557 7 3 23
0.052916 0.026074 0.182479 8 3 23
0.053364 0.026073 0.182473 8 2 23
0.053821 0.026077 0.182501 8 3 20
0.054291 0.026087 0.182572 6 1 17
0.054758 0.026095 0.182633 7 2 21
0.055239 0.026110 0.182735 9 5 19
0.055727 0.026128 0.182863 9 5 17
0.056239 0.026157 0.183065 5 1 13
0.056780 0.026198 0.183358 3 0 11
0.057363 0.026259 0.183780 2 0 12
0.057975 0.026331 0.184287 6 3 20
0.058596 0.026407 0.184817 12 10 27
0.059219 0.026482 0.185343 13 10 27
0.059809 0.026541 0.185760 15 10 36
0.060384 0.026593 0.186123 9 4 33
0.060924 0.026629 0.186376 3 0 21
0.061440 0.026654 0.186549 2 0 21
0.061921 0.026663 0.186616 3 1 26
0.062382 0.026663 0.186620 8 6 30
0.062827 0.026657 0.186578 10 8 33
0.063252 0.026643 0.186480 9 6 33
0.063684 0.026632 0.186401 9 6 33
0.064116 0.026621 0.186324 8 5 30
0.064543 0.026607 0.186232 2 1 18
0.064977 0.026598 0.186164 2 1 15
0.065409 0.026587 0.186089 6 5 19
0.065835 0.026574 0.185999 9 8 23
0.066266 0.026563 0.185925 7 6 23
0.066717 0.026561 0.185908 4 3 20
0.067164 0.026556 0.185879 2 1 18
0.067618 0.026555 0.185871 2 1 18
0.068073 0.026554 0.185864 2 1 18
0.068522 0.026551 0.185842 3 1 20
0.068972 0.026548 0.185823 5 3 23
0.069408 0.026539 0.185764 6 4 24
0.069832 0.026527 0.185676 5 5 27
0.070236 0.026507 0.185538 5 7 35
0.070638 0.026486 0.185395 5 5 37
0.071028 0.026462 0.185222 0 0 34
0.071404 0.026432 0.185016 3 3 40
0.071768 0.026398 0.184781 9 8 50
0.072107 0.026356 0.184485 21 20 65
0.072461 0.026320 0.184233 25 26 74
0.072830 0.026289 0.184020 24 25 77
0.073213 0.026264 0.183845 26 25 87
0.073582 0.026234 0.183636 25 23 91
0.073946 0.026203 0.183418 23 21 88
0.074305 0.026171 0.183192 22 23 88
0.074668 0.026140 0.182977 23 22 82
0.075045 0.026114 0.182798 24 21 77
0.075426 0.026090 0.182633 24 21 76
0.075813 0.026069 0.182483 24 21 74
0.076194 0.026045 0.182320 24 22 72
0.076595 0.026029 0.182206 26 24 70
0.076994 0.026013 0.182091 27 26 69
0.077391 0.025995 0.181970 26 26 72
0.077796 0.025981 0.181871 25 27 79
0.078193 0.025964 0.181754 24 26 85
0.078597 0.025950 0.181654 18 24 84
0.079023 0.025943 0.181607 12 19 76
0.079478 0.025945 0.181625 5 12 65
0.079973 0.025961 0.181735 10 9 53
0.080496 0.025985 0.181907 13 12 46
0.081003 0.026004 0.182039 13 10 44
0.081491 0.026017 0.182130 14 12 46
0.081921 0.026011 0.182089 15 15 49
0.082319 0.025995 0.181980 17 13 49
0.082700 0.025974 0.181832 13 11 44
0.083063 0.025948 0.181649 12 11 45
0.083428 0.025922 0.181470 13 9 45
0.083794 0.025897 0.181297 15 9 42
0.084181 0.025879 0.181169 14 8 41
0.084558 0.025858 0.181022 13 9 43
0.084914 0.025831 0.180833 11 10 44
0.085265 0.025802 0.180633 11 12 43
0.085598 0.025769 0.180399 12 12 47
0.085937 0.025737 0.180180 16 15 56
0.086284 0.025708 0.179979 25 24 70
0.086637 0.025682 0.179792 27 24 74
0.086984 0.025653 0.179595 26 24 75
-0.058701 0.029877 0.205366 1 0 17
-0.058060 0.029808 0.204887 1 0 12
-0.057461 0.029759 0.204551 1 0 10
-0.056899 0.029728 0.204342 1 0 7
-0.056368 0.029713 0.204237 1 0 9
-0.055858 0.029709 0.204212 1 0 8
-0.055361 0.029712 0.204234 0 0 6
-0.054877 0.029722 0.204303 0 0 6
-0.054401 0.029736 0.204403 0 0 6
-0.053924 0.029751 0.204504 0 0 7
-0.053467 0.029776 0.204678 0 0 8
-0.053015 0.029805 0.204880 0 0 8
-0.052612 0.029863 0.205274 0 0 8
-0.052226 0.029931 0.205746 0 0 8
-0.051882 0.030025 0.206390 0 0 8
-0.051523 0.030112 0.206988 0 0 8
-0.051142 0.030187 0.207510 0 0 10
-0.050766 0.030267 0.208060 0 0 13
-0.050329 0.030312 0.208371 0 0 19
-0.050066 0.030465 0.209420 0 0 21
-0.050054 0.030774 0.211547 0 1 37
-0.035193 0.046074 0.316786 37 87 197
-0.034418 0.046080 0.316827 37 87 197
-0.033641 0.046084 0.316855 37 87 197
-0.032866 0.046090 0.316901 38 86 197
-0.032090 0.046095 0.316936 38 86 197
-0.031314 0.046100 0.316973 37 86 197
-0.030539 0.046108 0.317029 37 86 198
-0.029762 0.046113 0.317061 36 86 199
-0.028983 0.046115 0.317079 36 86 199
-0.028205 0.046119 0.317107 36 86 199
-0.027426 0.046121 0.317125 36 85 198
-0.026649 0.046126 0.317158 37 84 198
-0.025873 0.046134 0.317215 38 84 198
-0.025096 0.046141 0.317265 38 85 198
-0.024323 0.046155 0.317362 38 86 199
-0.023547 0.046165 0.317429 38 86 199
-0.022769 0.046171 0.317475 35 84 196
-0.021989 0.046173 0.317490 35 84 195
-0.021208 0.046174 0.317496 35 84 195
-0.020428 0.046176 0.317513 35 84 194
-0.019648 0.046179 0.317534 35 84 193
-0.018867 0.046181 0.317546 35 84 193
-0.018083 0.046175 0.317508 36 84 193
-0.017299 0.046167 0.317459 36 84 194
-0.016515 0.046160 0.317411 38 86 195
-0.015731 0.046152 0.317353 38 86 195
-0.014948 0.046143 0.317293 37 86 195
-0.014164 0.046132 0.317220 37 86 195
-0.013380 0.046121 0.317143 37 86 195
-0.012596 0.046110 0.317072 37 86 195
-0.011815 0.046104 0.317033 37 86 195
-0.011034 0.046101 0.317011 37 86 195
-0.010253 0.046098 0.316990 37 86 195
-0.009472 0.046094 0.316967 37 86 195
-0.008691 0.046089 0.316933 37 86 195
-0.007911 0.046084 0.316903 37 86 195
-0.007131 0.046082 0.316891 37 86 195
-0.006351 0.046082 0.316891 37 86 195
-0.005571 0.046082 0.316889 37 86 195
-0.004791 0.046081 0.316887 36 86 195
-0.004011 0.046081 0.316886 34 85 193
-0.003231 0.046080 0.316881 35 85 193
-0.002452 0.046079 0.316873 37 86 195
-0.001672 0.046077 0.316863 37 86 195
-0.000892 0.046074 0.316843 37 86 195
-0.000112 0.046072 0.316832 37 88 197
0.000667 0.046074 0.316843 36 87 197
0.001447 0.046076 0.316860 36 87 198
0.002227 0.046079 0.316881 37 86 197
0.003007 0.046081 0.316897 39 85 197
0.003787 0.046083 0.316909 36 86 197
0.004567 0.046084 0.316923 37 86 197
0.005347 0.046088 0.316946 37 86 197
0.006128 0.046093 0.316983 38 87 197
0.006909 0.046098 0.317023 38 87 197
0.007690 0.046103 0.317058 37 86 197
0.008471 0.046110 0.317103 35 84 195
0.009253 0.046115 0.317141 35 84 195
0.010034 0.046119 0.317172 37 86 196
0.010816 0.046124 0.317207 37 86 196
0.011598 0.046130 0.317250 37 86 195
0.012379 0.046134 0.317279 36 85 196
0.013163 0.046144 0.317346 35 84 195
0.013946 0.046151 0.317396 35 84 195
0.014728 0.046154 0.317421 34 85 195
0.015510 0.046157 0.317440 34 85 195
0.016291 0.046155 0.317431 34 85 195
0.017073 0.046157 0.317445 35 85 196
0.017854 0.046158 0.317455 35 86 196
0.018638 0.046163 0.317488 35 86 196
0.019421 0.046169 0.317532 35 85 195
0.020205 0.046175 0.317571 33 84 194
0.020990 0.046183 0.317628 34 85 195
0.021776 0.046191 0.317684 34 85 195
0.022561 0.046198 0.317732 35 86 196
0.023348 0.046208 0.317802 36 86 196
0.024133 0.046214 0.317846 36 86 196
0.024918 0.046219 0.317880 37 86 197
0.025706 0.046228 0.317948 38 86 197
0.026495 0.046240 0.318031 39 86 197
0.027285 0.046253 0.318118 36 82 194
0.028072 0.046260 0.318168 34 81 192
0.028857 0.046262 0.318187 33 82 193
0.029639 0.046261 0.318177 36 84 195
0.030419 0.046256 0.318149 38 87 198
0.031200 0.046254 0.318134 37 85 197
0.031980 0.046250 0.318104 38 86 197
0.032759 0.046243 0.318062 37 87 198
0.033541 0.046242 0.318057 37 88 198
0.034321 0.046239 0.318035 37 88 198
0.035103 0.046238 0.318028 38 89 199
0.035887 0.046239 0.318041 38 89 199
0.036674 0.046245 0.318078 38 89 199
0.037460 0.046249 0.318110 38 89 199
0.048592 0.027908 0.192000 9 5 20
0.048615 0.027652 0.190241 6 3 18
0.048714 0.027445 0.188812 8 5 20
0.048853 0.027263 0.187563 9 6 21
0.049057 0.027120 0.186583 11 7 23
0.049290 0.026997 0.185732 9 6 23
0.049552 0.026890 0.185003 9 6 24
0.049847 0.026804 0.184411 11 8 26
0.050172 0.026736 0.183940 11 8 26
0.050516 0.026678 0.183546 11 8 25
0.050886 0.026636 0.183253 10 7 25
0.051280 0.026606 0.183048 10 9 26
0.051680 0.026580 0.182870 10 7 26
0.052087 0.026558 0.182719 7 4 23
0.052513 0.026546 0.182638 7 3 23
0.052944 0.026536 0.182573 7 3 23
0.053394 0.026537 0.182577 7 2 22
0.053854 0.026542 0.182612 7 3 21
0.054327 0.026554 0.182695 7 2 20
0.054799 0.026564 0.182767 8 3 21
0.055283 0.026581 0.182883 9 5 21
0.055779 0.026602 0.183033 7 3 18
0.056297 0.026634 0.183254 4 0 15
0.056848 0.026682 0.183579 1 0 12
0.057445 0.026749 0.184043 3 0 15
0.058068 0.026828 0.184585 9 6 26
0.058696 0.026907 0.185132 11 8 28
0.059318 0.026983 0.185655 13 9 30
0.059907 0.027042 0.186063 18 13 41
0.060478 0.027093 0.186413 12 7 34
0.061011 0.027126 0.186640 5 1 22
0.061519 0.027147 0.186788 3 0 22
0.061994 0.027154 0.186837 3 2 26
0.062451 0.027153 0.186828 8 6 30
0.062894 0.027146 0.186780 9 7 32
0.063319 0.027131 0.186677 7 4 31
0.063744 0.027116 0.186576 8 5 33
0.064170 0.027102 0.186481 6 3 29
0.064590 0.027085 0.186368 2 1 20
0.065020 0.027073 0.186287 3 2 19
0.065447 0.027061 0.186200 7 7 23
0.065870 0.027046 0.186099 10 9 24
0.066301 0.027035 0.186025 7 6 24
0.066749 0.027031 0.185996 4 3 20
0.067194 0.027026 0.185964 2 1 18
0.067648 0.027024 0.185954 2 1 18
0.068103 0.027023 0.185946 2 1 19
0.068553 0.027020 0.185925 4 2 22
0.069002 0.027017 0.185902 6 4 25
0.069437 0.027008 0.185843 7 5 26
0.069859 0.026994 0.185749 7 7 30
0.070263 0.026974 0.185609 5 7 36
0.070663 0.026952 0.185462 5 5 37
0.071051 0.026926 0.185283 0 1 34
0.071429 0.026897 0.185081 6 6 43
0.071794 0.026863 0.184849 13 12 54
0.072137 0.026821 0.184564 22 21 67
0.072494 0.026785 0.184316 27 28 77
0.072863 0.026754 0.184105 26 26 80
0.073244 0.026728 0.183922 26 25 87
0.073611 0.026697 0.183711 24 23 90
0.073976 0.026665 0.183493 23 23 89
0.074334 0.026632 0.183264 22 24 89
0.074698 0.026601 0.183051 23 22 84
0.075076 0.026575 0.182875 24 21 79
0.075459 0.026551 0.182712 24 21 79
0.075847 0.026530 0.182565 24 21 76
0.076232 0.026507 0.182411 24 22 73
0.076634 0.026491 0.182301 26 25 71
0.077034 0.026474 0.182186 27 26 70
0.077431 0.026457 0.182065 26 26 73
0.077833 0.026441 0.181959 26 26 81
0.078235 0.026425 0.181851 24 25 86
0.078640 0.026411 0.181754 17 23 84
0.079067 0.026404 0.181707 12 18 75
0.079521 0.026406 0.181723 5 13 65
0.080008 0.026420 0.181816 10 9 54
0.080526 0.026443 0.181974 13 11 47
0.081027 0.026460 0.182094 13 11 45
0.081514 0.026473 0.182182 14 11 46
0.081942 0.026466 0.182138 18 17 53
0.082344 0.026451 0.182036 23 18 56
0.082730 0.026431 0.181899 17 14 49
0.083102 0.026407 0.181735 11 10 46
0.083477 0.026384 0.181577 13 9 46
0.083848 0.026360 0.181414 15 9 44
0.084235 0.026342 0.181287 15 8 43
0.084607 0.026319 0.181127 14 9 45
0.084958 0.026289 0.180928 12 9 46
0.085302 0.026258 0.180713 11 11 46
0.085624 0.026221 0.180455 12 11 50
0.085956 0.026186 0.180220 14 13 55
0.086297 0.026155 0.180006 19 18 59
0.086648 0.026127 0.179816 20 18 61
-0.059214 0.030387 0.205392 0 0 16
-0.058611 0.030336 0.205054 0 0 16
-0.058024 0.030293 0.204763 3 0 14
-0.057454 0.030258 0.204526 2 0 12
-0.056901 0.030232 0.204348 1 0 8
-0.056368 0.030215 0.204239 0 0 8
-0.055851 0.030208 0.204186 0 0 7
-0.055346 0.030206 0.204178 0 0 6
-0.054855 0.030213 0.204222 0 0 7
-0.054373 0.030224 0.204300 0 0 8
-0.053893 0.030237 0.204387 0 0 9
-0.053431 0.030260 0.204545 0 0 9
-0.052980 0.030290 0.204747 1 0 9
-0.052572 0.030345 0.205120 1 0 9
-0.052182 0.030411 0.205571 1 0 9
-0.051835 0.030505 0.206206 0 0 10
-0.051470 0.030590 0.206777 0 0 10
-0.051086 0.030665 0.207286 0 0 10
-0.050711 0.030747 0.207840 2 0 11
-0.050348 0.030837 0.208455 4 0 14
-0.050004 0.030942 0.209161 5 0 14
-0.049955 0.031233 0.211128 0 0 18
-0.036486 0.046514 0.314492 38 84 193
-0.035717 0.046520 0.314534 39 85 194
-0.034948 0.046527 0.314579 38 84 193
-0.034177 0.046532 0.314614 38 84 193
-0.033405 0.046534 0.314632 38 84 193
-0.032635 0.046541 0.314676 38 84 193
-0.031864 0.046546 0.314712 38 84 193
-0.031094 0.046552 0.314753 39 84 193
-0.030323 0.046558 0.314794 37 85 194
-0.029552 0.046562 0.314828 35 84 195
-0.028776 0.046561 0.314817 35 84 195
-0.028000 0.046559 0.314808 35 84 194
-0.027226 0.046560 0.314813 37 83 193
-0.026454 0.046563 0.314839 37 83 192
-0.025682 0.046570 0.314884 37 83 192
-0.024911 0.046576 0.314927 37 83 193
-0.024142 0.046587 0.315007 38 84 194
-0.023371 0.046596 0.315063 38 84 195
-0.022598 0.046600 0.315093 37 83 195
-0.021823 0.046601 0.315103 37 83 193
-0.021048 0.046602 0.315109 37 83 193
-0.020274 0.046604 0.315123 37 83 193
-0.019499 0.046606 0.315137 37 83 193
-0.018724 0.046606 0.315139 37 83 193
-0.017945 0.046599 0.315092 38 84 194
-0.017168 0.046593 0.315056 38 84 194
-0.016390 0.046584 0.314997 38 84 194
-0.015612 0.046576 0.314946 38 84 195
-0.014834 0.046568 0.314891 37 86 195
-0.014056 0.046557 0.314819 36 85 194
-0.013278 0.046546 0.314741 35 84 193
-0.012501 0.046535 0.314669 35 84 193
-0.011725 0.046528 0.314626 35 84 193
-0.010950 0.046525 0.314606 35 84 193
-0.010175 0.046522 0.314585 36 85 194
-0.009400 0.046519 0.314567 36 85 194
-0.008626 0.046516 0.314545 36 85 194
-0.007851 0.046512 0.314525 36 85 194
-0.007077 0.046512 0.314523 36 85 194
-0.006303 0.046512 0.314526 36 85 194
-0.005529 0.046512 0.314524 36 85 194
-0.004755 0.046512 0.314527 34 83 192
-0.003981 0.046512 0.314531 34 83 192
-0.003207 0.046512 0.314532 34 83 192
-0.002433 0.046512 0.314530 34 83 192
-0.001659 0.046510 0.314521 34 83 192
-0.000885 0.046507 0.314500 34 83 192
-0.000111 0.046505 0.314486 35 86 194
0.000663 0.046506 0.314493 35 86 194
0.001437 0.046508 0.314510 35 86 194
0.002211 0.046511 0.314533 35 86 194
0.002985 0.046515 0.314557 35 86 194
0.003759 0.046517 0.314578 35 86 194
0.004534 0.046520 0.314597 37 86 195
0.005308 0.046524 0.314626 37 86 195
0.006083 0.046530 0.314666 37 86 195
0.006858 0.046535 0.314703 37 86 195
0.007634 0.046541 0.314741 37 86 195
0.008409 0.046547 0.314787 37 86 195
0.009185 0.046553 0.314824 37 86 195
0.009961 0.046556 0.314850 37 86 197
0.010736 0.046561 0.314886 37 86 197
0.011513 0.046566 0.314920 35 84 195
0.012289 0.046571 0.314953 35 84 195
0.013067 0.046580 0.315018 35 84 195
0.013844 0.046586 0.315060 35 84 195
0.014620 0.046589 0.315078 35 84 195
0.015396 0.046592 0.315100 35 84 195
0.016172 0.046592 0.315105 35 84 195
0.016947 0.046593 0.315110 35 84 195
0.017723 0.046594 0.315122 35 84 195
0.018500 0.046599 0.315151 34 83 194
0.019278 0.046603 0.315183 33 82 193
0.020055 0.046608 0.315216 34 83 194
0.020834 0.046615 0.315265 34 83 194
